# .PCD v0.7 - Point Cloud Data file format
VERSION 0.7
FIELDS x y z
SIZE 4 4 4
TYPE F F F
COUNT 1 1 1
WIDTH 1286
HEIGHT 1
VIEWPOINT 0 0 0 1 0 0 0
POINTS 1286
DATA ascii
-21.34440394	15.85753406	-5.168634067
-21.67512358	16.11498291	-4.277856881
-31.52582672	23.49862703	-0.686333336
-37.76018292	28.25850593	2.471722541
-21.19146706	15.8590121	-5.144973751
-21.61241523	16.18580854	-4.276605405
-40.87490115	30.65628996	9.931608209
-31.31887733	23.51487825	-0.68361076
-21.06422801	15.88456541	-5.12818256
-21.53402481	16.25063433	-4.272850978
-31.03792548	23.48231544	-0.679352373
-20.94924389	15.91287046	-5.113681076
-22.15968212	16.84451068	-4.408636094
-39.64222318	30.17741885	9.684319751
-30.78717554	23.46203555	-0.675652463
-20.84177968	15.94050847	-5.100324446
-21.65507092	16.57452559	-4.31915558
-30.57276735	23.45930949	-0.672650649
-20.80495023	16.02196858	-6.062430915
-20.77356789	16.00357761	-5.097271502
-21.49383011	16.57041325	-4.29850623
-37.88189377	29.24678411	9.302701761
-30.37044516	23.47294748	-0.669997883
-21.40777367	16.62353206	-4.29287459
-37.00467064	28.77624502	9.111892765
-30.13684319	23.46089232	-0.666647021
-21.39940769	16.73710116	-4.302886395
-29.39454375	23.00687221	-4.583262267
-29.97075625	23.4663056	-3.33022093
-29.381252	23.03784434	-0.651707761
-21.36998488	16.82256011	-5.286554026
-21.3656815	16.8312555	-4.307892298
-29.26288424	23.07728038	-3.260496336
-29.30065592	23.14026369	-0.651707761
-21.28959572	16.87997644	-5.281211374
-21.31298908	16.91064435	-4.309143774
-28.22270276	22.40916718	-4.42483212
-28.71411351	22.80752551	-3.208202891
-29.17275348	23.2050559	-0.650660617
-20.34570445	16.24757722	-6.011142074
-21.21838114	16.95054111	-5.278921666
-21.30023929	17.02811797	-4.31915558
-27.63814951	22.1106713	-4.345860786
-28.08587622	22.47689542	-3.147193871
-20.34049535	16.360024	-6.026438746
-20.30862075	16.34022534	-5.066742063
-21.04064949	16.94131504	-4.278482619
-27.10016568	21.83585697	-4.273226657
-27.61944153	22.26221276	-3.103615999
-28.33063905	22.86810906	-0.635511928
-29.2706676	23.70291926	1.973902926
-20.17804697	16.34569219	-5.047661164
-20.88614607	16.9313825	-4.258459007
-26.56512166	21.55042285	-4.200105051
-31.22140439	25.32773894	6.367508465
-27.02255805	21.92933018	-3.044698717
-27.68356673	22.49782441	-0.622666957
-20.11782453	16.41354494	-5.046897928
-20.70144469	16.90174323	-4.232803755
-26.05008391	21.28381129	-4.130395787
-26.51081237	21.66795907	-2.995542878
-20.06102594	16.47831249	-5.993595892
-28.07969422	23.06492086	1.904400776
-20.13928447	16.54848217	-5.066742063
-28.62039467	23.52579308	3.241322073
-20.56603132	16.91117023	-4.217160309
-25.60774748	21.07189255	-4.071898502
-26.05352683	21.44633908	-2.95231363
-26.48275138	21.83069556	-0.599071303
-26.99856923	22.32722302	0.611532322
-20.01239286	16.55569119	-5.996295305
-27.55888198	22.79868993	1.874464609
-20.08139679	16.61868057	-5.066742063
-27.93955955	23.13004586	3.173340593
-25.15192806	20.84448196	-4.01096383
-25.5367629	21.17093033	-2.902111922
-26.1571392	21.71607536	-0.593416724
-26.45950127	22.03740271	0.601060878
-19.96945264	16.63792068	-6.000794326
-27.01486407	22.51592533	1.843063035
-19.95690729	16.63337018	-5.049950872
-27.43935514	22.87784054	3.125579246
-20.59006564	17.17326865	-4.246569988
-24.62181273	20.5505494	-3.937842224
-25.05589095	20.92027257	-2.855745067
-25.62248171	21.42372006	-0.582980185
-23.11367889	19.38093454	-8.08240114
-19.94111023	16.73257824	-6.009792368
-26.44739351	22.19199814	1.809358679
-19.88519093	16.69157149	-5.04651631
-26.89243103	22.58143031	3.072239932
-20.5420948	17.25520108	-4.249072939
-24.59843388	20.68447174	-2.811818573
-25.01655508	21.05097529	-1.713479207
-25.15596276	21.18328762	-0.574044553
-25.46789124	21.51441856	0.58193304
-20.0299367	16.92660886	-6.054332677
-25.91822029	21.90259429	1.778375793
-19.84029907	16.7722892	-5.049950872
-26.38747086	22.31493527	3.023432716
-20.51793257	17.35742074	-4.256581794
-23.79595487	20.1447628	-3.828159815
-24.1490147	20.45088648	-2.768589324
-24.48581194	20.75078863	-1.682077634
-24.66398744	20.91658245	-0.564480634
-22.3361877	18.99614561	-7.856710933
-24.95703849	21.23259491	0.571950264
-19.96479362	16.9913712	-6.052533068
-25.42789898	21.64083829	1.749905033
-19.80405505	16.86053286	-5.055675141
-25.8574011	22.02194143	2.971487893
-20.45721886	17.42893594	-4.256581794
-23.71668986	20.22734858	-2.727103191
-27.60505792	23.55196048	7.053445323
-24.07293258	20.54569842	-1.658631125
-24.22284425	20.68826342	-0.556033669
-21.92347447	18.77741956	-7.734548344
-24.51224748	21.00211709	0.563433489
-19.96158669	17.10914903	-6.069629348
-24.97915391	21.40972426	1.724155742
-19.76445561	16.94617184	-5.060636175
-25.38112243	21.7696258	2.925469661
-22.86689386	19.6200766	-4.772189791
-23.05230087	19.79313296	-3.73066434
-26.45848114	22.71774249	5.523388092
-23.30738392	20.01921992	-2.688057418
-27.00149982	23.20036719	6.919879026
-23.61937746	20.3015295	-1.632253803
-23.7987604	20.47016331	-0.547935753
-28.19946751	24.25536858	9.966603789
-21.62081496	18.64942058	-7.650690973
-24.07543006	20.77402214	0.555056334
-19.73062135	17.03101549	-6.017440704
-24.4930269	21.14181369	1.695684982
-19.74678862	17.05098595	-5.071321479
-24.94914287	21.55072468	2.88433215
-22.46645	19.41305673	-4.702732888
-22.5506166	19.49953753	-3.660467599
-22.87270052	19.78502174	-2.645874038
-26.39183138	22.83714484	6.784023022
-23.1889662	20.07274875	-1.607341888
-23.38556747	20.257214	-0.540047265
-21.21752819	18.42462029	-7.52956366
-23.67730547	20.56786161	0.547447085
-19.67403598	17.09635095	-6.017440704
-24.08143245	20.93366986	1.672238474
-19.64124127	17.07387055	-5.058728085
-24.48063085	21.28819023	2.838313918
-20.59858674	17.91870575	-4.324161483
-22.17140551	19.30050035	-3.609282474
-25.41225613	22.12170348	5.336292471
-22.4824179	19.57813923	-2.608222757
-25.93402855	22.59183083	6.68556558
-22.79703338	19.86610912	-1.584732755
-22.98368143	20.04288019	-0.532298396
-20.86224098	18.24422522	-7.426036042
-23.23211103	20.32385559	0.538790692
-19.6157052	17.16620535	-6.017890606
-23.60847744	20.66765966	1.644395745
-24.05243769	21.06373379	2.797176408
-20.49430953	17.95405207	-4.315401153
-21.80535915	19.11605506	-3.560534737
-24.92406964	21.85782243	5.250566385
-22.12034077	19.39901821	-2.574057706
-25.46834371	22.3430029	6.585581666
-22.45734019	19.70843105	-1.565891811
-22.58602721	19.83532637	-0.524689147
-20.54906886	18.09732771	-7.337002291
-22.79191402	20.07963991	0.530204108
-23.20359713	20.45672264	1.621158581
-23.62611413	20.83655117	2.756038897
-21.29955269	18.79129949	-4.498742346
-21.42599301	18.9161546	-3.509349613
-24.42200597	21.56121493	5.159834395
-21.7418713	19.20178437	-2.537800917
-24.94880739	22.04180843	6.471096269
-22.00828407	19.45075104	-1.539305145
-22.21107683	19.64379099	-0.517568565
-20.18225788	17.89975851	-7.228298292
-22.40755948	19.8803793	0.522874097
-22.76762313	20.21404171	1.595618634
-23.1599631	20.56960703	2.710020665
-21.00050649	18.65823518	-4.449309055
-21.08983072	18.75077369	-3.464989172
-23.93542969	21.28825038	5.07348257
-21.36207459	18.99949984	-2.501195505
-24.5020936	21.79990357	6.374928536
-21.64186912	19.26188452	-1.518370763
-21.82878286	19.44190298	-0.510238555
-19.86894989	17.74618024	-7.138229264
-22.01891281	19.67335409	0.515404467
-20.07562673	17.94337799	-6.216297436
-22.42594286	20.05110708	1.576568346
-22.73754965	20.33685773	2.668883154
-20.64082191	18.46799362	-4.386735269
-20.7580452	18.58592767	-3.421116208
-23.55565166	21.09079319	5.007780095
-21.00770472	18.8160698	-2.467379077
-24.03105773	21.53157075	6.271891678
-21.33653576	19.12402242	-1.501623257
-21.47199086	19.25895203	-0.503467021
-19.5799442	17.61130605	-7.056442446
-21.63198836	19.46386132	0.507934837
-19.78981309	17.81257452	-6.147012511
-22.00849967	19.81654211	1.552075118
-20.03620425	18.04067934	-5.240759867
-22.33481239	20.11741502	2.629837382
-20.32381576	18.31249588	-4.332921813
-22.74882332	20.50471073	3.76040046
-20.39228792	18.38709316	-3.371393516
-23.11148259	20.84622091	4.929562862
-20.66967394	18.64374504	-2.435305764
-23.59135066	21.28652344	6.17648718
-20.95533527	18.91467753	-1.479432811
-21.11377767	19.07106949	-0.496625678
-19.2634889	17.44869465	-6.964302866
-21.27939937	19.28145035	0.501233113
-19.50227224	17.67737926	-6.076827782
-21.6432772	19.62492537	1.531140736
-19.7287713	17.88895743	-5.176648045
-21.97225738	19.93021536	2.595323708
-19.96133681	18.11253564	-4.269096551
-22.3831365	20.31715459	3.711652723
-20.0722644	18.22596857	-3.328982984
-22.6941659	20.60670118	4.855100057
-20.33015588	18.46661342	-2.402883828
-23.22630188	21.1046868	6.100163582
-20.59950711	18.72440236	-1.458917116
-20.76897549	18.89168851	-0.490063573
-19.01691939	17.34658281	-6.897009914
-20.91653364	19.08603508	0.49425215
-19.1612262	17.49047215	-5.989546773
-21.28851357	19.43908418	1.510834385
-19.44004199	17.75119768	-5.117115638
-21.57892175	19.7111709	2.556975181
-19.62967037	17.93692146	-4.211528668
-21.85493734	19.97729474	3.635606252
-19.74775745	18.05747836	-3.285597498
-22.344464	20.43908559	4.796280698
-20.00095034	18.29541026	-2.37150776
-22.76432314	20.8304408	5.997889961
-20.25115914	18.53727095	-1.438820109
-23.0947108	21.14757763	7.229476985
-20.41683888	18.70203152	-0.483292039
-18.7115457	17.18807534	-6.807976162
-20.56707459	18.89914901	0.487550426
-18.87337497	17.34887956	-5.91846224
-20.93237419	19.24830478	1.49031869
-19.10049231	17.56380304	-5.043844984
-21.24604126	19.54358114	2.525599113
-19.36924934	17.82341994	-4.168978493
-21.5163353	19.80608658	3.590758334
-19.45095962	17.91115191	-3.246599308
-21.95396668	20.21601196	4.726823796
-19.69956842	18.14643461	-2.3432693
-22.3796219	20.62241147	5.915460475
-19.91905727	18.36147584	-1.419769821
-22.67692277	20.9110107	7.121500478
-20.0809813	18.5237081	-0.476869553
-18.41318588	17.03289742	-6.721012963
-20.22504939	18.71549164	0.480988321
-18.58388831	17.20284545	-5.846477902
-20.55731333	19.03628087	1.468337588
-18.82299208	17.43028178	-4.986602285
-20.85613135	19.31975191	2.487250587
-19.06929241	17.67072668	-4.117667989
-21.19957951	19.6516542	3.549322757
-19.14669332	17.75487746	-3.206138686
-21.521152	19.95673143	4.648606563
-19.39655176	17.99287053	-2.314682216
-21.99665416	20.41195374	5.833030989
-19.61478091	18.20804967	-1.402603627
-22.2325119	20.64526762	7.00452593
-19.74662071	18.34327087	-0.470447068
-18.14723854	16.90481783	-6.645437802
-16.54315834	15.41595204	0.394703624
-18.30705751	17.06563462	-5.778092782
-20.2482624	18.88181016	1.450962051
-18.5351727	17.28432816	-4.926306643
-20.50884016	19.13149606	2.453782781
-18.761975	17.50807294	-4.064480271
-20.84643855	19.46003524	3.501549975
-18.86407	17.6156676	-3.169090406
-21.1966894	19.80084364	4.594167369
-19.09776204	17.84013498	-2.286443755
-21.60108786	20.18567279	5.746785323
-19.31182129	18.05272571	-1.385437434
-19.45611765	18.20034458	-0.465036822
-17.85986901	16.75394416	-6.561580431
-16.33467739	15.32855658	0.391003714
-18.04278014	16.93737328	-5.713306878
-19.92016017	18.70627552	1.432121107
-18.25719128	17.14464379	-4.868300708
-20.16602508	18.94378252	2.420663599
-18.47042364	17.35701924	-4.014421242
-20.46596995	19.23900065	3.448902418
-18.57108557	17.46382431	-3.130092216
-20.81953771	19.58506544	4.527213418
-18.79157063	17.6773445	-2.257159426
-21.22167069	19.97033706	5.664355837
-18.99564528	17.88182131	-1.367224521
-19.13337781	18.02407929	-0.458823765
-17.62994985	16.65433752	-6.498428584
-16.15462477	15.26599097	0.387966995
-17.75413325	16.78338047	-5.640422737
-19.58482636	18.52044963	1.412652131
-18.01464836	17.03560611	-4.819453605
-19.82766851	18.75665035	2.38789304
-18.18302781	17.20686161	-3.964987951
-20.17379849	19.09743181	3.410879183
-18.29957298	17.32926205	-3.094506368
-20.46996779	19.39135217	4.465891108
-18.48385854	17.50989616	-2.227526473
-20.84687388	19.75530284	5.582689587
-18.70699144	17.73366562	-1.350895703
-18.85273027	17.88432049	-0.453588043
-17.35055694	16.50539749	-6.416641766
-16.05053694	15.27403981	0.386745327
-17.50630487	16.66520355	-5.580135854
-19.26260674	18.34353249	1.39402053
-17.73612628	16.88988479	-4.760684435
-19.54568591	18.61961119	2.361746317
-17.9169286	17.07399029	-3.919934825
-19.8426362	18.91570835	3.366031265
-17.98900408	17.15466057	-3.052095836
-20.16488704	19.23634553	4.413954866
-18.21791313	17.37902479	-2.202774242
-20.47099996	19.53518813	5.500260101
-18.41093807	17.57544055	-1.333938853
-18.55594274	17.72624891	-0.447933464
-17.08637167	16.3680763	-6.340031329
-15.94370281	15.27878143	0.385453849
-17.25670665	16.54280605	-5.518949167
-18.9565683	18.17234535	1.376226305
-17.45600969	16.73971145	-4.701152028
-19.2160195	18.43393931	2.329673004
-17.64342945	16.93126686	-3.873004485
-19.51871977	18.73740757	3.322158301
-17.72569779	17.02210394	-3.017484943
-19.79323075	19.00756942	4.346375177
-17.94448815	17.23823088	-2.176976142
-20.16203694	19.37526908	5.435385042
-18.09606219	17.39598935	-1.315516596
-18.26049133	17.56632601	-0.442278884
-16.86785054	16.27203425	-6.27998531
-15.86005492	15.3051816	0.384720848
-16.9801377	16.39180203	-5.448764438
-18.65996273	18.01971655	1.359478799
-17.20540525	16.61506672	-4.649251981
-18.90795219	18.26557581	2.300040051
-17.39387542	16.80880792	-3.831080049
-19.20771091	18.56811661	3.280235247
-17.47780851	16.90172007	-2.985311436
-19.47355223	18.83826011	4.291310245
-17.68086265	17.10405403	-2.152223911
-19.81776145	19.17793691	5.360587916
-17.86876723	17.29790704	-1.303374654
-18.00372853	17.44073464	-0.437531829
-16.63081068	16.15582265	-6.212692359
-15.76494465	15.32003537	0.383708608
-16.74116594	16.27438844	-5.390277164
-18.37669712	17.86431771	1.343149981
-16.95870099	16.4916161	-4.598115171
-18.61272237	18.10640327	2.27180159
-17.13123673	16.67103872	-3.786026923
-18.88959028	18.38857751	3.236849761
-17.23951095	16.78812482	-2.954600362
-19.16147168	18.66627929	4.236871051
-17.418395	16.96824917	-2.12747168
-19.4835489	18.98666171	5.288080498
-17.60805585	17.16499183	-1.288720587
-17.71657635	17.28284698	-0.432016869
-20.27254662	19.77624312	7.588574402
-16.37545638	16.01924369	-6.138152474
-15.66277836	15.32741906	0.382521844
-16.50600811	16.15823483	-5.332689694
-18.11726919	17.73554745	1.328705257
-16.7327082	16.38587849	-4.552321012
-18.33876269	17.96491445	2.246003491
-16.87259602	16.53440838	-3.741599535
-18.57579533	18.20982603	3.193951752
-16.96537114	16.63693697	-2.917552081
-18.86493352	18.50618551	4.185560547
-17.15709335	16.83082276	-2.10271945
-19.14531142	18.78778978	5.214046608
-17.33994088	17.02207475	-1.273438487
-17.46498524	17.15680237	-0.427339624
-16.17080524	15.92988772	-6.08224756
-15.58639106	15.35954146	0.381963367
-16.26354059	16.03243151	-5.272402812
-17.82176319	17.57464563	1.311748407
-16.48250029	16.25395302	-4.499657729
-18.06602015	17.82173617	2.220205391
-16.63761691	16.41837803	-3.70217805
-18.29738647	18.06258079	3.156903472
-16.71509893	16.50635961	-2.88440362
-18.57576181	18.3437864	4.13487578
-16.89980064	16.69458168	-2.078315842
-18.88411101	18.66130938	5.160620089
-17.06451842	16.86907281	-1.257528357
-19.16481244	18.95192619	6.222596065
-17.21449228	17.02921419	-0.422662379
-19.53181558	19.32834241	7.362884195
-15.9340633	15.80664724	-6.013919332
-15.51564829	15.39695184	0.38154451
-16.05258091	15.93533854	-5.222013776
-17.55076925	17.42258464	1.29604762
-16.26963939	16.15645052	-4.456916514
-17.76057928	17.64317555	2.190223815
-16.40926032	16.30648045	-3.66400804
-18.06528513	17.95840039	3.127654829
-16.4743929	16.38263852	-2.85271759
-18.26472466	18.16934028	4.080436586
-16.67192085	16.58485462	-2.057398463
-18.56836452	18.47784337	5.091928851
-16.83001137	16.75381196	-1.244549039
-18.82237104	18.74369275	6.132615644
-16.94243782	16.8775081	-0.417426657
-19.17138888	19.10458464	7.252109644
-15.73391624	15.71744834	-5.959049694
-15.43351854	15.42274767	0.380846413
-15.82596063	15.82043729	-5.166225914
-17.29209309	17.28605806	1.281393553
-16.01046208	16.01046208	-4.401200287
-17.49323132	17.49933868	2.164774338
-16.17630447	16.18760161	-3.624586555
-17.76398925	17.7826014	3.086219252
-16.26000496	16.28272407	-2.825418858
-17.96987364	17.99498185	4.027874606
-16.42530866	16.45400127	-2.034040724
-18.30405594	18.34243207	5.03697586
-16.58241355	16.62298162	-1.230523003
-18.55042237	18.60229739	6.065130327
-16.70836096	16.76093445	-0.41309846
-18.92185699	18.98802228	7.18274614
-15.4910049	15.5832042	-5.887615638
-15.3429408	15.43964747	0.379938888
-15.61407409	15.71797548	-5.114937074
-17.04584699	17.15927589	1.26757686
-15.79953946	15.91022788	-4.358459072
-17.2355284	17.36233677	2.14037073
-15.94994636	16.07290589	-3.586416546
-17.49210423	17.63310662	3.049658449
-16.02694827	16.16178089	-2.794707783
-17.70387284	17.85281321	3.982195742
-16.18262077	16.32446057	-2.011031608
-17.98564473	18.1496225	4.96675815
-16.36967099	16.52468313	-1.219009093
-18.27969268	18.45923438	5.997645011
-16.46123828	16.62872305	-0.408421215
-18.59727884	18.79305597	7.084394903
-15.27365392	15.47220477	-5.825499067
-15.25664735	15.46037333	0.379136077
-15.38393782	15.5948067	-5.057349604
-16.79228319	17.02245638	1.253132136
-15.57848554	15.79753505	-4.312664914
-16.97620004	17.22091363	2.115618499
-15.70794983	15.93994517	-3.544492109
-17.23262666	17.49324631	3.015047556
-15.8032933	16.0478977	-2.765459141
-17.42522565	17.69493442	3.933388189
-15.94383509	16.19626806	-1.988371115
-17.72113325	18.00799121	4.911041923
-16.11019675	16.37669423	-1.203936337
-17.94187154	18.24503737	5.907664589
-16.23206674	16.51210543	-0.404162828
-18.29650097	18.61215568	6.993290599
-15.07349702	15.3764344	-5.769594153
-15.1997884	15.5106783	0.379066268
-15.16303605	15.47857746	-5.002461546
-16.51193146	16.85554326	1.236593974
-15.37214906	15.69752179	-4.270686935
-16.73200897	17.09213157	2.092609383
-15.49747347	15.83655351	-3.509450789
-16.97989367	17.3574679	2.981411617
-15.58340652	15.93549062	-2.736697976
-17.16171015	17.5494537	3.887709325
-15.72285686	16.08370635	-1.96780236
-17.47429791	17.88158648	4.859905112
-15.87428821	16.24995681	-1.190538333
-17.6602325	18.0844792	5.835680252
-15.99832452	16.38836894	-0.399764822
-18.0257759	18.47169886	6.915644885
-14.87686315	15.27686075	-5.71368924
-15.13153115	15.54380286	0.37864741
-14.97027942	15.38352859	-4.955671727
-16.3053711	16.76132697	1.225498751
-15.15025888	15.57391373	-4.223366304
-16.49466426	16.96183548	2.06994889
-15.30167304	15.74055139	-3.47691242
-16.67875539	17.16312327	2.938513608
-15.35066192	15.80197788	-2.705011946
-16.91897915	17.41640431	3.845784889
-15.52508013	15.98710601	-1.949673965
-17.2015769	17.71968222	4.800372706
-15.66453119	16.14197738	-1.178815078
-17.4481939	17.98628531	5.785291216
-15.77405276	16.26619433	-0.395506435
-17.75247498	18.3063422	6.832822791
-14.67572217	15.17593835	-5.65674905
-15.05633309	15.57496107	0.378123838
-14.75940273	15.27313618	-4.903483083
-16.04694028	16.61129016	1.210425996
-14.9293909	15.45443803	-4.176808909
-16.23882365	16.81579415	2.045196659
-15.06553581	15.60626904	-3.435613721
-16.4753832	17.07268096	2.913164785
-15.13829291	15.69259616	-2.677225736
-16.66031802	17.27638517	3.8013575
-15.29768452	15.86336406	-1.928059341
-16.94886073	17.58173785	4.746946187
-15.45563992	16.03836085	-1.167301168
-17.12031273	17.7720033	5.697110402
-15.54517723	16.14254752	-0.391178238
-17.50036829	18.17922188	6.761388734
-14.48349738	15.08216014	-5.602914688
-14.95756001	15.58126017	0.377006884
-14.576467	15.18958205	-4.86029248
-15.8367678	16.50866013	1.198912086
-14.70954364	15.33361224	-4.130251514
-16.01178636	16.69693643	2.023930658
-14.87426851	15.5161638	-3.404326828
-16.25087191	16.95809795	2.883916142
-14.92413004	15.57905939	-2.648952048
-16.40616032	17.12612697	3.756304375
-15.09063626	15.75837742	-1.908885078
-16.68917381	17.43373841	4.69122996
-15.23937948	15.92482666	-1.155159226
-16.88305115	17.64859397	5.638623128
-15.33670803	16.03773648	-0.387338708
-17.22101975	18.00817855	6.676496087
-14.26277699	14.95646926	-5.537692289
-14.82857163	15.55521722	0.375122024
-14.39160724	15.10211702	-4.816202074
-15.59444677	16.37006033	1.184886049
-14.5448897	15.26830194	-4.098958839
-15.79127473	16.58247206	2.003361903
-14.67564346	15.41633066	-3.371162722
-15.98630961	16.7990169	2.847355339
-14.72462826	15.47860337	-2.623115747
-16.19081868	17.02581968	3.721263054
-14.87627129	15.64347779	-1.888664945
-16.43072906	17.28414276	4.635513734
-15.01859859	15.80418896	-1.142598597
-16.60659694	17.48136112	5.566638791
-15.11814578	15.9200683	-0.383219941
-16.97401489	17.88062842	6.606097307
-14.1121858	14.90236417	-5.49938707
-14.68620097	15.51394249	0.372888116
-14.17806944	14.98240857	-4.76221382
-15.38073945	16.25899068	1.172953451
-14.36198382	15.18206338	-4.062323512
-15.55806982	16.45219755	1.981050033
-14.46975632	15.3066888	-3.336121401
-15.74760013	16.66426841	2.815181833
-14.51783235	15.36828806	-2.595817015
-15.96606339	16.90135658	3.682467307
-14.69846059	15.56493861	-1.872976912
-16.19779271	17.15865509	4.586666631
-14.81255533	15.69673202	-1.131084686
-16.37430973	17.35777734	5.509051321
-14.91980095	15.82143961	-0.37958984
-16.73437422	17.74567181	6.535698527
-13.89862285	14.77983915	-5.436235223
-14.52375548	15.45000952	0.370130636
-13.99223467	14.88979752	-4.71722361
-15.14338498	16.12042795	1.159136759
-14.15835177	15.07184094	-4.019582297
-15.35870217	16.35535662	1.962921638
-14.27833518	15.21020161	-3.304208771
-15.52361219	16.54253586	2.785445713
-14.32285291	15.26830186	-2.570468191
-15.71213453	16.75514936	3.638039919
-14.49412355	15.45628345	-1.853802648
-15.96862012	17.03461869	4.538582764
-14.60198432	15.58220166	-1.119152088
-16.11910892	17.20718752	5.443365613
-14.69225994	15.68951028	-0.375191834
-16.45270301	17.57559226	6.45080588
-13.7282814	14.70118915	-5.389647795
-14.7399182	15.79004329	0.377041789
-13.81785712	14.80747143	-4.675832616
-14.96168275	16.03882724	1.149506943
-13.96102279	14.96612623	-3.978367554
-15.12759055	16.22235476	1.940609768
-14.08776562	15.11256635	-3.27229614
-15.30608129	16.4252539	2.756684548
-14.16122378	15.20200387	-2.550969096
-15.49760531	16.63660285	3.601121385
-14.28801042	15.34347718	-1.834279762
-15.71108387	16.87757961	4.482103301
-14.40872243	15.48394006	-1.108475553
-15.88639803	17.07785956	5.384878339
-14.50667624	15.60011906	-0.371840972
-16.21541557	17.43765486	6.3804071
-13.55603268	14.6186985	-5.342025091
-14.54060983	15.6859474	0.373341879
-13.64157718	14.7212522	-4.633541817
-14.74273251	15.91513013	1.136946313
-13.77527946	14.87074156	-3.940205755
-14.92737836	16.12010226	1.922132751
-13.89536954	15.01088854	-3.239757771
-15.09225676	16.30957093	2.72841086
-13.96788156	15.09979149	-2.525620273
-15.28363502	16.5279551	3.565454327
-14.09639019	15.2440505	-1.81649999
-15.4948207	16.7622026	4.437072378
-14.22174809	15.3903884	-1.098217706
-15.67859004	16.97288527	5.334489303
-14.32189722	15.50962511	-0.36849011
-16.00201437	17.33514523	6.321396358
-13.37929414	14.52950158	-5.292331834
-14.3395009	15.57771184	0.369572159
-13.46079082	14.62824837	-4.589451411
-14.52483014	15.79010204	1.124385684
-13.60632335	14.79158324	-3.906623371
-14.6983969	15.98438655	1.89982088
-13.71989864	14.92550516	-3.210973829
-14.87942826	16.19259738	2.700137172
-13.75931242	14.97887332	-2.497346585
-15.07907409	16.41561247	3.530413007
-13.90833501	15.14640989	-1.799068842
-15.26628019	16.63106047	4.388225276
-14.01939976	15.27806274	-1.086703795
-15.44009504	16.83220451	5.273302616
-14.13792831	15.41803296	-0.365139247
-15.7485954	17.1745363	6.243750644
-13.19291583	14.42784517	-5.238497473
-14.14202491	15.47121731	0.365872249
-13.2887088	14.54279509	-4.548060417
-14.33222848	15.6902925	1.113709149
-13.43808914	14.71142813	-3.873040988
-14.50816414	15.88846708	1.882389732
-13.54519463	14.8390813	-3.182189888
-14.66492609	16.07140607	2.671376007
-13.58921751	14.89774999	-2.475897581
-14.85660762	16.28717959	3.49161726
-13.72650467	15.05353286	-1.782334939
-15.05207169	16.51303862	4.343194353
-13.84222452	15.19108726	-1.077073979
-15.20015084	16.68718661	5.211216125
-13.93054087	15.29873297	-0.361160099
-15.49345028	17.01514398	6.166104931
-13.0281905	14.34794993	-5.192945321
-13.96966107	15.39018809	0.362800625
-13.10691274	14.44477487	-4.503070206
-14.13781856	15.58637389	1.10282327
-13.25475359	14.61283042	-3.834879189
-14.32413507	15.79731999	1.865655829
-13.36330276	14.74283968	-3.151528733
-14.44345574	15.94009047	2.64115241
-13.3958702	14.78914052	-2.45006128
-14.64831386	16.17752144	3.45657594
-13.56154136	14.97729556	-1.767692774
-14.83624009	16.39081498	4.297400194
-13.66582881	15.10306267	-1.067444164
-14.9823253	16.56382485	5.156328068
-13.75366611	15.21080673	-0.357948856
-15.27070815	16.88857273	6.100882531
-12.85901044	14.26134305	-5.145322617
-13.79268133	15.3022042	0.359589382
-12.94944491	14.37172378	-4.466178233
-13.94431047	15.48129111	1.091937391
-13.08803885	14.53063886	-3.801296806
-14.1222563	15.68435459	1.846481566
-13.19810776	14.66312944	-3.124622005
-14.27353814	15.86350241	2.620190883
-13.259204	14.74135272	-2.434462004
-14.43062183	16.0493476	3.41840593
-13.37063621	14.87046024	-1.74956438
-14.62669669	16.27312839	4.253132507
-13.46885983	14.99022295	-1.056139597
-14.80461387	16.4826415	5.114937074
-13.56154465	15.10397858	-0.354318755
-15.03063007	16.74603018	6.029448475
-12.6931725	14.17661001	-5.098735189
-13.41377392	14.98668987	0.351072608
-12.79004927	14.29484624	-4.428386456
-13.74638395	15.36909447	1.080632825
-12.91159021	14.43575637	-3.764661479
-13.92399849	15.57314483	1.827655925
-13.02573508	14.57361013	-3.095838063
-14.10168738	15.78296327	2.598741879
-13.06220741	14.62468774	-2.407650748
-14.24558005	15.95521765	3.387744775
-13.19391339	14.77733859	-1.7331791
-14.42077212	16.15711011	4.209628056
-13.31539659	14.92388377	-1.048184532
-14.59652228	16.36551715	5.062748429
-13.3809845	15.00793707	-0.350967893
-14.80016994	16.59967688	5.959049694
-12.53578589	14.09955699	-5.055253589
-13.23650619	14.89292211	0.347791555
-12.61581751	14.19955076	-4.385195853
-13.56798049	15.27661306	1.070793665
-12.75160953	14.3574355	-3.732605568
-13.74521008	15.48160271	1.811270646
-12.84890466	14.47715811	-3.065802646
-13.88578139	15.65093239	2.569005759
-12.90570396	14.5513832	-2.388151653
-14.02467959	15.81860643	3.34832329
-13.02857919	14.69509269	-1.718188313
-14.23146364	16.05748557	4.170703021
-13.12547674	14.81479909	-1.037298653
-14.39459875	16.25297832	5.012359393
-13.21716839	14.92878746	-0.348035889
-14.62944429	16.52395263	5.913497543
-12.39166132	14.02594404	-5.014877818
-13.15788392	14.89846012	0.34695384
-12.46538702	14.11932292	-4.34830388
-13.39305225	15.17007288	1.060535817
-12.61030848	14.28849851	-3.704365836
-13.56205798	15.37231465	1.793490874
-12.69099252	14.39004158	-3.038895918
-13.68163781	15.51877187	2.540244594
-12.73917535	14.45484306	-2.365727694
-13.86013585	15.72677061	3.320165086
-12.86908104	14.6073829	-1.703197525
-14.04340689	15.94594185	4.130251514
-12.96273067	14.72404108	-1.028087524
-14.18382391	16.11672095	4.956571531
-13.04340139	14.82610442	-0.344685027
-14.40902361	16.37837264	5.845169315
-12.23051311	13.94131814	-4.969325666
-13.07151766	14.90520922	0.346046315
-12.30554658	14.03672787	-4.309612299
-13.2215215	15.08687607	1.051324689
-12.44390015	14.19954424	-3.670020217
-13.37965283	15.27269418	1.776408349
-12.54177672	14.32131198	-3.015117879
-13.51231861	15.4349972	2.518795589
-12.58144243	14.37672804	-2.345741122
-13.67233717	15.62878922	3.288878193
-12.69994753	14.51725485	-1.687509491
-13.85841947	15.84707946	4.092089715
-12.80083518	14.64289016	-1.019295084
-14.01206953	16.03406928	4.916080342
-12.86790259	14.72998202	-0.341403975
-14.2091186	16.27101251	5.788229125
-12.07022695	13.86075986	-4.92480879
-12.90388399	14.82330713	0.343044501
-12.16446866	13.97883124	-4.278119152
-13.05077812	14.9973361	1.041904217
-12.27065101	14.10582174	-3.634148126
-13.19023222	15.16827886	1.758628577
-12.38552515	14.24791684	-2.990088365
-13.34107305	15.35255985	2.497346585
-12.41410489	14.29086596	-2.324292117
-13.47249284	15.51472932	3.254462611
-12.53692148	14.43733877	-1.672867326
-13.67154634	15.74950809	4.053927916
-12.64497802	14.57204672	-1.011130675
-13.78720441	15.89394917	4.857593068
-12.69068117	14.63503196	-0.338122922
-14.0231417	16.17163997	5.735430039
-11.93584639	13.80343997	-4.8896094
-12.7343695	14.73210356	0.339903068
-12.01876626	13.9091445	-4.243926591
-12.88604575	14.91283452	1.032902432
-12.12380319	14.0356532	-3.605145159
-13.02261712	15.0815248	1.743289166
-12.21954752	14.15648205	-2.961930161
-13.17846695	15.27278911	2.476872535
-12.26560508	14.21987222	-2.305767977
-13.304737	15.43001229	3.226930145
-12.36935232	14.3452109	-1.657179293
-13.47292619	15.63058301	4.011186701
-12.47669931	14.47992234	-1.001710202
-13.60954724	15.80023281	4.814402465
-12.54296347	14.56710529	-0.335539966
-13.82038591	16.05067393	5.675384021
-11.77445046	13.71809323	-4.844057248
-12.56309506	14.64209173	0.336761635
-11.85859723	13.8258926	-4.20523501
-10.53803799	12.29059791	0.848470523
-11.96749108	13.95778047	-3.573852483
-12.84018672	14.9809029	1.726206641
-12.06475835	14.08116815	-2.936900647
-12.98552087	15.16117453	2.451036235
-12.10237331	14.13505302	-2.28480645
-13.12232128	15.32630851	3.195643252
-12.22341259	14.28146633	-1.644628866
-13.29046601	15.53366657	3.973788138
-12.30411175	14.38591486	-0.992080387
-13.42997248	15.70781578	4.771211863
-12.3725575	14.47616828	-0.332398533
-13.6432038	15.96849487	5.627761317
-11.63125817	13.64736701	-4.804716753
-12.39259884	14.54581665	0.333550392
-11.70159959	13.73961306	-4.166543429
-10.47002808	12.29354444	0.846272412
-11.82451773	13.8888493	-3.545612752
-12.68709342	14.90728434	1.712610345
-11.90545082	13.99380507	-2.909993919
-12.80134227	15.05216846	2.426174889
-11.95523929	14.06226987	-2.26628231
-12.94069483	15.22678987	3.164982097
-12.0651057	14.19651971	-1.629986701
-13.10905052	15.43034399	3.935626339
-12.15814821	14.31612313	-0.984334665
-13.21614855	15.56741607	4.714524197
-12.22102551	14.40034546	-0.329675958
-13.43740915	15.83924398	5.565644746
-11.50118386	13.59055633	-4.770552639
-12.24875965	14.47906508	0.331037245
-11.56800038	13.6791915	-4.135950085
-10.37804403	12.27206492	0.84229488
-11.67456781	13.81009557	-3.515083313
-12.52695574	14.82365029	1.69796818
-11.7698472	13.93266509	-2.888718831
-12.63089215	14.95722973	2.403750929
-11.80620105	13.98559942	-2.247270692
-12.76270663	15.11867381	3.133695204
-11.9075421	14.11064347	-1.615344536
-12.94117873	15.34095231	3.901280719
-11.99222222	14.22105947	-0.974914193
-13.04366268	15.47339649	4.672233399
-12.06244334	14.31446762	-0.326743953
-13.25757709	15.73830305	5.513880937
-11.35424965	13.5122988	-4.729141592
-12.09653533	14.40076961	0.328279765
-11.43246032	13.61502112	-4.104456938
-10.34413373	12.31892308	0.843027583
-11.52531301	13.7304657	-3.484553874
-12.34194417	14.7085563	1.679839786
-11.61958273	13.85258881	-2.863689317
-12.47911869	14.88258173	2.384739312
-11.66804652	13.92023197	-2.230208984
-12.59818681	15.02990946	3.106162738
-11.76352254	14.03911329	-1.602445486
-12.77157085	15.24756824	3.866171864
-11.8450604	14.14645221	-0.966959128
-12.87449726	15.38135283	4.630842405
-11.91744332	14.24299618	-0.324160997
-13.08853052	15.64815611	5.466258233
-11.2201204	13.43816685	-4.690836373
-11.94488109	14.31127799	0.325382666
-11.29350029	13.53565386	-4.069814475
-10.31817707	12.36669497	0.844074302
-11.38655161	13.65202221	-3.455550906
-12.20125978	14.63401669	1.666940736
-11.48494624	13.77976952	-2.841162754
-12.32810668	14.79665321	2.364752739
-11.51246118	13.82258995	-2.20875998
-12.44471466	14.94191251	3.079881748
-11.61227506	13.94738228	-1.587803321
-12.60303906	15.1427526	3.829536537
-11.70603252	14.06997854	-0.959213406
-12.70648622	15.27788908	4.587651802
-11.77803619	14.16657781	-0.321578041
-12.89136884	15.50569015	5.403106386
-11.08437049	13.37017017	-4.653566431
-11.78384082	14.21893416	0.322345947
-11.14175262	13.44893741	-4.032022698
-10.22015687	12.3365017	0.83957341
-11.26369475	13.60096204	-3.432653827
-12.04846058	14.55374036	1.652995817
-11.33602245	13.69802878	-2.81613324
-12.16503121	14.70499667	2.343303735
-11.38317618	13.76478704	-2.193160704
-12.28673534	14.85739066	3.053600758
-11.46957876	13.8741969	-1.574904271
-12.44254976	15.05650347	3.79671739
-11.56271788	13.99680908	-0.951467684
-12.52899274	15.17188857	4.542661591
-11.636855	14.09657147	-0.319064894
-12.74346146	15.4425737	5.364801167
-10.95427642	13.31225204	-4.619402317
-11.64526313	14.15701311	0.31997242
-11.01317132	13.39335026	-4.003228963
-10.1372016	12.33245186	0.836642596
-11.11902239	13.52688974	-3.40365086
-11.89131581	14.47157445	1.638702275
-11.20549528	13.64179322	-2.796109628
-12.0052356	14.62061491	2.322829685
-11.23441113	13.68673381	-2.174149086
-12.11940085	14.76490503	3.025442554
-11.33523786	13.81448544	-1.563399713
-12.28518494	14.9775353	3.765424715
-11.42016042	13.9278938	-0.943931307
-12.37694375	15.10014991	4.507569227
-11.48625477	14.01847905	-0.316342319
-12.58663122	15.3614411	5.321319567
-10.81973617	13.24269565	-4.582132374
-11.50216886	14.08296742	0.317389463
-10.88747582	13.33510251	-3.974435228
-10.09030295	12.36312019	0.836328581
-10.98235869	13.45610941	-3.376174364
-11.73492864	14.38331793	1.62406011
-11.06541957	13.56754485	-2.772957327
-11.84876008	14.53319329	2.302355636
-11.09878011	13.61815164	-2.157087378
-11.96289243	14.68364589	2.999787302
-11.19885646	13.74584312	-1.551197909
-12.12124927	14.88332224	3.731079096
-11.27816127	13.85305667	-0.936185585
-12.21099174	15.0042077	4.466178233
-11.33629342	13.93439249	-0.313549934
-12.3937279	15.23960674	5.263344101
-10.68338193	13.16936298	-4.543827156
-11.3609941	14.00964982	0.314841412
-10.75005037	13.26100347	-3.941142472
-10.04834359	12.39981832	0.836433253
-10.8413815	13.37843992	-3.347171397
-11.58432027	14.30034017	1.610115192
-10.93345874	13.50169711	-2.75168224
-11.70803031	14.46337408	2.28480645
-10.96126839	13.54570439	-2.139538193
-11.81969566	14.60653071	2.976009263
-11.0580813	13.67022219	-1.538298859
-11.9754047	14.80952122	3.702076128
-11.13180262	13.77118627	-0.928021176
-12.0752568	14.94367036	4.43558489
-11.20213888	13.86809842	-0.311176407
-12.24115425	15.15438558	5.219862502
-10.55009622	13.0982501	-4.506557213
-11.21169372	13.92461667	0.312049027
-10.62549482	13.20128976	-3.912348737
-9.986218429	12.4114765	0.834863174
-10.70600438	13.30607004	-3.319694902
-11.44442509	14.22890794	1.597564765
-10.79714236	13.42893675	-2.729155677
-11.5505231	14.37108897	2.263844923
-10.82937209	13.47865439	-2.122963962
-11.65970104	14.51730243	2.949102535
-10.91298115	13.58757375	-1.524702564
-11.81055836	14.71039042	3.666967273
-10.99365493	13.69781015	-0.920484798
-11.9010704	14.83372932	4.390594679
-11.06358188	13.79479898	-0.30866326
-12.07677222	15.063497	5.173275074
-10.43674317	13.05050817	-4.47756948
-11.0768619	13.85589467	0.309640595
-10.49418863	13.13173518	-3.88085559
-9.950313016	12.45562208	0.835491205
-10.58351938	13.24825836	-3.296034586
-11.29771115	14.14733341	1.583968469
-10.66146824	13.35539059	-2.706629114
-11.40123324	14.28719176	2.244345828
-10.70550598	13.42016084	-2.107852164
-11.50555601	14.42308402	2.922195807
-10.78350027	13.5227733	-1.513198006
-11.66613158	14.6348538	3.637964306
-10.86362436	13.63301067	-0.913576452
-11.73994199	14.7379987	4.350103489
-10.93065684	13.72695988	-0.306289733
-11.9184477	14.96744942	5.126687645
-10.31664507	12.99305793	-4.445475919
-10.94140431	13.78483607	0.307197258
-10.37318857	13.07363872	-3.852961659
-9.867057701	12.44020548	0.832141704
-10.46644938	13.19590752	-3.273900743
-11.15418301	14.0680319	1.570720796
-10.54116422	13.29963931	-2.687856978
-11.2748608	14.23043547	2.22923403
-10.56985619	13.34540661	-2.090302978
-11.37413932	14.36603826	2.902172195
-10.66944676	13.47598056	-1.503785185
-11.5150668	14.54925291	3.606671631
-10.73665958	13.5706042	-0.90687745
-11.57962824	14.64132561	4.309612299
-10.803302	13.66463684	-0.304055825
-11.76049408	14.88068598	5.08217077
-10.19933354	12.93314948	-4.413382357
-10.81268603	13.71582684	0.304858636
-10.2501695	13.00694668	-3.82326812
-9.780020334	12.41480765	0.828268844
-10.33030017	13.11333568	-3.244897775
-11.02364975	13.99850256	1.558867615
-10.42369144	13.24139293	-2.669084843
-11.12449077	14.13670614	2.20875998
-10.43963033	13.27116925	-2.07324127
-11.23124554	14.2774941	2.877142681
-10.53849067	13.40165622	-1.491583381
-11.35756078	14.44844573	3.572326011
-10.605217	13.49620411	-0.899550416
-11.42989463	14.55091606	4.271820522
-10.67889018	13.59972956	-0.301821917
-11.61585427	14.79296762	5.039724446
-10.07790484	12.8713243	-4.380253519
-10.68462983	13.65113068	0.302589823
-10.13265418	12.9505598	-3.796273993
-9.739085904	12.45201709	0.828478187
-10.20705452	13.05034359	-3.220474224
-10.87408949	13.90819013	1.544574073
-10.29468927	13.17186214	-2.647809755
-10.9773051	14.0503098	2.189260885
-10.31748565	13.21053129	-2.058129471
-11.0767284	14.1877712	2.850861691
-10.39846317	13.31900639	-1.478335708
-11.22733637	14.38585491	3.547139224
-10.48432966	13.43865782	-0.893270101
-11.29034947	14.47701127	4.238527766
-10.53791238	13.51706568	-0.299169151
-11.44993176	14.69220794	4.991066466
-9.947547811	12.79660839	-4.342983577
-10.54979599	13.57623489	0.300111581
-10.02283111	12.90274594	-3.771979279
-9.684536276	12.47173946	0.82753614
-10.10364111	13.01146239	-3.20215656
-10.74728587	13.84533536	1.533418138
-10.1735665	13.11095723	-2.628411882
-10.84302609	13.97874501	2.172199177
-10.19102681	13.14292852	-2.042042718
-10.94246676	14.11202826	2.828335128
-10.27623062	13.25758985	-1.467528396
-11.0784486	14.29770176	3.515846549
-10.34929781	13.3614852	-0.885733723
-11.17054945	14.42696453	4.212433444
-10.4123306	13.45256098	-0.296935243
-11.32310623	14.62926821	4.956902352
-9.846163727	12.757845	-4.318136948
-10.42172369	13.50848184	0.297807863
-9.896804806	12.83272029	-3.741385936
-9.638503887	12.50230528	0.827326796
-9.971855801	12.93470303	-3.174680065
-10.60402773	13.75967229	1.519821842
-10.04335096	13.03684952	-2.606511057
-10.71907105	13.91899745	2.157087378
-10.08211951	13.09662684	-2.029368306
-10.81120037	14.04369953	2.807060041
-10.15455446	13.19548345	-1.456721084
-10.9398907	14.22113477	3.487606817
-10.22223861	13.29303455	-0.878825377
-11.02273323	14.33917883	4.175541471
-10.28245472	13.38100304	-0.294561716
-11.18015726	14.54922218	4.916526581
-9.717108833	12.68649064	-4.281902282
-10.29920211	13.4513243	0.295713575
-9.773900661	12.76986848	-3.712592201
-9.582906782	12.52485836	0.826489421
-9.850416154	12.87449308	-3.15101975
-10.48816289	13.71298668	1.510409022
-9.930712076	12.9888322	-2.589616134
-10.57154963	13.83201557	2.137588283
-9.949689992	13.02307319	-2.012306598
-10.67326868	13.9752152	2.785159216
-10.03598297	13.14077496	-1.446611018
-10.797152	14.14254023	3.45860385
-10.10559324	13.2414999	-0.87296375
-10.87554381	14.25553515	4.139549302
-10.16300958	13.32637618	-0.292537237
-11.02835193	14.4610674	4.873044981
-9.607282578	12.63421795	-4.252914549
-10.18199818	13.39485885	0.293689096
-9.665598922	12.72012088	-3.688297487
-9.476307477	12.47552898	0.821046482
-9.734164115	12.81499643	-3.12812267
-10.35589057	13.63843853	1.498207218
-9.813653429	12.92901093	-2.570843998
-10.44880811	13.77078642	2.122476485
-9.836990916	12.96915491	-1.998657232
-10.52416814	13.88016469	2.758878225
-9.922641079	13.08681983	-1.436849575
-10.67419437	14.08313677	3.434943535
-9.977291861	13.1684431	-0.86584606
-10.74570898	14.18777556	4.108955959
-10.03917763	13.25973576	-0.290303329
-10.89832955	14.39972433	4.838880867
-9.502464629	12.58275953	-4.224962092
-10.05077477	13.31363959	0.291175949
-9.559975501	12.66810547	-3.664002773
-9.427668135	12.49731824	0.82041845
-9.625403675	12.7594365	-3.106752063
-10.21943694	13.55180607	1.484959545
-9.706514644	12.87630357	-2.553949076
-10.33140559	13.71023829	2.107852164
-9.727044189	12.91291211	-1.985007865
-10.40440983	13.81715048	2.739480352
-9.795294457	13.00823974	-1.424647771
-10.54242429	14.00552114	3.407467039
-9.871123806	13.11846871	-0.860403121
-10.60723058	14.10185785	4.073863594
-9.918238053	13.19066359	-0.288069421
-10.75551369	14.30419012	4.795399268
-9.386636382	12.5200204	-4.192868531
-9.934683089	13.2558322	0.28915147
-9.447928354	12.61094191	-3.637908451
-9.383986917	12.5301508	0.82041845
-9.510194769	12.69867229	-3.083854983
-10.10281544	13.49488878	1.474849479
-9.57865869	12.79939941	-2.532048251
-10.20262502	13.63813035	2.091277933
-9.612957751	12.85458263	-1.970871022
-10.28041991	13.75212629	2.71945674
-9.675865809	12.94341377	-1.413840459
-10.4018051	13.91956866	3.377700836
-9.746382623	13.04723865	-0.853494774
-10.48798254	14.04511195	4.046869468
-9.802754757	13.13226094	-0.286044942
-10.6153801	14.22089452	4.755023497
-9.27841393	12.47064445	-4.164916074
-9.819201544	13.20230037	0.2871968
-9.324904863	12.54226991	-3.608214912
-9.323508188	12.54039134	0.818953043
-9.405033371	12.65465729	-3.064774084
-9.977242097	13.42947048	1.463693544
-9.470438235	12.7519559	-2.515779067
-10.06027415	13.55111111	2.072266315
-9.50899454	12.81321371	-1.959171565
-10.14994834	13.67688842	2.697555915
-9.572568336	12.90358375	-1.405647819
-10.26651775	13.84405916	3.350224341
-9.629510521	12.98981386	-0.847423803
-10.3575373	13.97699049	4.016276124
-9.68551903	13.07490457	-0.284020462
-10.4803922	14.14793853	4.717753554
-9.175143535	12.4221516	-4.137998893
-9.699414709	13.1367551	0.285032702
-9.223205344	12.49634733	-3.585719806
-9.273925415	12.56965797	0.818639028
-9.296695969	12.60052064	-3.043785094
-9.856982427	13.3648015	1.452886232
-9.36256771	12.69907792	-2.498884145
-9.956380459	13.50944175	2.060566858
-9.372370336	12.72166867	-1.940159947
-10.03883942	13.63128771	2.681286731
-9.46012365	12.84547564	-1.395712064
-10.15062255	13.78811225	3.328090497
-9.52255093	12.9397	-0.841980864
-10.22785107	13.90317816	3.984782977
-9.573477465	13.01841819	-0.282065793
-10.35065972	14.08041171	4.682554164
-9.074484838	12.37150711	-4.111081712
-9.589581734	13.07853925	0.283078032
-9.119505386	12.44198926	-3.561425092
-9.226125948	12.5874546	0.817906324
-9.187560386	12.53942797	-3.021651251
-9.746681404	13.30740232	1.443124788
-9.25038776	12.63442467	-2.480112009
-9.827113505	13.42704789	2.043017673
-9.278558635	12.68218643	-1.929435445
-9.907288945	13.54651288	2.65813443
-9.352785968	12.78832547	-1.386124933
-10.03068823	13.7202651	3.303666946
-9.401810155	12.86477966	-0.835072518
-10.09202423	13.81428084	3.949690612
-9.45949374	12.95319876	-0.279971504
-10.23801403	14.01925243	4.651495879
-8.965290237	12.31252837	-4.081058703
-9.473262522	13.01492779	0.280983744
-9.016399043	12.39180676	-3.538030183
-9.163329928	12.59374315	0.816231574
-9.074445434	12.47616005	-2.998754171
-9.620497663	13.23176369	1.431271607
-9.152805727	12.59313369	-2.465720038
-9.71717686	13.37454655	2.029855784
-9.17124052	12.62776382	-1.916273556
-9.79031007	13.48510213	2.639362294
-9.241368941	12.7289946	-1.376189178
-9.908933481	13.6535049	3.279243395
-9.29820486	12.81668794	-0.829838922
-9.970521779	13.74846039	3.920896877
-9.341451814	12.88576055	-0.277807406
-10.10057296	13.93290542	4.611120108
-8.865794266	12.27014342	-4.056212075
-9.352902908	12.94905567	0.278819645
-8.909319312	12.33945268	-3.513735469
-9.08100855	12.58186949	0.813196088
-8.971208247	12.42973957	-2.979673272
-9.508985949	13.17968512	1.421858787
-9.039568425	12.53367073	-2.44757364
-9.603080246	13.31989855	2.016206417
-9.062221674	12.57432942	-1.903111667
-9.680811202	13.4326563	2.622467372
-9.124775739	12.66578651	-1.365730489
-9.780807331	13.58139868	3.253293371
-9.185820612	12.75990976	-0.823977295
-9.860873898	13.70266107	3.897501968
-9.233437146	12.83550009	-0.275992355
-9.96804973	13.86179584	4.574885441
-8.762108398	12.21624643	-4.028259618
-9.244724301	12.8938669	0.276934785
-8.802619096	12.28177687	-3.488540951
-9.000840119	12.55834301	0.809741915
-8.866021422	12.37479928	-2.9590659
-9.397956823	13.12208797	1.412097344
-8.935967246	12.48162698	-2.431304456
-9.471035447	13.23388156	1.998169754
-8.955903629	12.51870377	-1.889949778
-9.555674346	13.3620004	2.601818023
-9.024877875	12.61977098	-1.357363538
-9.653417963	13.50365885	3.226580112
-9.076195217	12.70089726	-0.818115668
-9.72915937	13.61965598	3.864209212
-9.12814841	12.78302912	-0.274177305
-9.856748974	13.80845428	4.545897708
-8.649943897	12.14918629	-3.996166056
-9.134726664	12.83482336	0.274980116
-8.703209063	12.23303487	-3.466045845
-8.901372797	12.51156936	0.804717663
-8.771568729	12.3336763	-2.941893091
-9.282828706	13.05738198	1.401638655
-8.828263079	12.42257295	-2.413783796
-9.374198536	13.19565562	1.987445252
-8.850085104	12.46249016	-1.876787888
-9.447262578	13.303422	2.584297362
-8.918493301	12.56346537	-1.347950717
-9.542597692	13.44761188	3.205209504
-8.967094525	12.64127601	-0.812254041
-9.607163135	13.54861698	3.834515672
-9.021026446	12.72671767	-0.272292445
-9.728072667	13.72928541	4.508627766
-8.562884269	12.116201	-3.975460533
-9.0344853	12.788236	0.273304685
-8.595254056	12.17101496	-3.439951523
-8.812711616	12.47893829	0.800635459
-8.65939589	12.26638369	-2.918614393
-9.175160248	13.00180055	1.392225835
-8.732467559	12.37906189	-2.399391825
-9.248000815	13.11473574	1.970383544
-8.744768904	12.40569139	-1.863625999
-9.323376108	13.22652754	2.563022275
-8.817203037	12.51308658	-1.339235143
-9.430025976	13.38774676	3.183075661
-8.867720327	12.5941134	-0.807229789
-9.492512189	13.48645498	3.807521546
-8.900601291	12.65018983	-0.269988728
-9.617852167	13.67467034	4.479640033
-8.46506641	12.06694159	-3.949578628
-8.927792426	12.73128264	0.271419825
-8.505736262	12.13392323	-3.421055634
-8.872277653	12.65681566	0.810055931
-8.56920668	12.22900784	-2.902586438
-9.054276815	12.92604518	1.380721277
-8.634817951	12.33179805	-2.384374116
-9.147526222	13.06887542	1.958684087
-8.660442442	12.37758712	-1.854851407
-9.206937303	13.1586428	2.543624402
-8.712948052	12.45725673	-1.329996634
-9.315739362	13.32404276	3.160178581
-8.771073623	12.54968613	-0.802414881
-9.37171662	13.41407392	3.777828007
-8.806010716	12.60904565	-0.268452916
-9.492811055	13.59245314	4.44237009
-8.369905293	12.02031864	-3.924732
-8.8193232	12.67045882	0.269465155
-8.4143567	12.09315642	-3.401259942
-8.863405432	12.73853155	0.81330076
-8.470416341	12.17825878	-2.883505538
-8.945408661	12.86596413	1.370959833
-8.52407688	12.26453932	-2.36560198
-9.033893528	13.00291134	1.944059766
-8.551507535	12.31317606	-1.840714563
-9.104608577	13.10957722	2.527980955
-8.613735912	12.40739914	-1.321455372
-9.20425187	13.262931	3.138044738
-8.665738322	12.49161017	-0.796762598
-9.26486888	13.3602316	3.753533293
-8.707259462	12.56082236	-0.266777485
-9.363705572	13.51282763	4.405100148
-8.277370209	11.97635773	-3.900920648
-8.713661492	12.61232446	0.267580295
-8.310076943	12.03265837	-3.376065424
-8.772403356	12.70683079	0.809218555
-8.373200779	12.12858565	-2.864806257
-8.848387571	12.82167976	1.362941505
-8.431858684	12.22267498	-2.351835747
-8.927595259	12.94611958	1.930897877
-8.456648448	12.26776921	-1.829502583
-9.002735262	13.05995858	2.512337509
-8.512717672	12.35372048	-1.312565486
-9.095532704	13.20443801	3.11667413
-8.558650697	12.42966282	-0.790900971
-9.151882554	13.29617643	3.726539166
-8.604418823	12.50547463	-0.264962435
-9.259711436	13.45786262	4.377147691
-8.189615923	11.93827034	-3.879179848
-8.614168414	12.56185383	0.26586996
-8.219544612	11.99086902	-3.356269731
-8.662515077	12.64181563	0.803147585
-8.277545614	12.0800027	-2.846488593
-8.742777905	12.76372573	1.353528685
-8.333341084	12.1705377	-2.336192301
-8.817319384	12.88219275	1.916761033
-8.35324367	12.20874452	-1.816340694
-8.890127845	12.99829887	2.494191111
-8.424552344	12.31757868	-1.305593026
-8.987334806	13.14534873	3.095303523
-8.458863589	12.37701489	-0.785667375
-9.041655692	13.23471459	3.700444844
-8.506582377	12.45616844	-0.263287004
-9.142792953	13.39278857	4.345054129
-8.09787993	11.89332966	-3.855368496
-8.510633935	12.50423078	0.264020005
-8.120636285	11.93570558	-3.332874821
